130.000000	25.000000	35.000000	0.742901	-0.381054	-0.550360
130.000000	25.000000	40.000000	0.945214	0.153100	-0.288323
130.000000	25.000000	45.000000	0.487750	-0.001317	-0.872982
130.000000	25.000000	50.000000	0.375213	-0.905978	-0.196009
130.000000	30.000000	0.000000	-0.544384	0.782671	-0.301780
130.000000	30.000000	5.000000	-0.776165	-0.623222	-0.095721
130.000000	30.000000	10.000000	0.167918	-0.391810	-0.904593
130.000000	30.000000	15.000000	-0.791945	0.203823	0.575569
130.000000	30.000000	20.000000	-0.134849	0.844727	-0.517930
130.000000	30.000000	25.000000	-0.141428	0.375958	-0.915780
130.000000	30.000000	30.000000	0.970737	0.068943	-0.230035
130.000000	30.000000	35.000000	-0.676503	0.523265	-0.518206
130.000000	30.000000	40.000000	0.589812	0.320594	0.741175
130.000000	30.000000	45.000000	0.955511	0.256320	-0.145939
130.000000	30.000000	50.000000	-0.010868	-0.845829	0.533344
130.000000	30.000000	55.000000	0.846783	-0.367188	0.384878
130.000000	35.000000	0.000000	0.801467	0.037221	0.596879
130.000000	35.000000	5.000000	-0.054839	-0.949386	0.309286
130.000000	35.000000	10.000000	0.840004	0.217301	0.497165
130.000000	35.000000	15.000000	-0.550680	0.737832	0.390327
130.000000	35.000000	20.000000	0.537807	-0.612186	0.579648
130.000000	35.000000	25.000000	0.031077	0.132272	0.990726
130.000000	35.000000	30.000000	0.402745	0.095941	-0.910270
130.000000	35.000000	35.000000	0.815581	0.559524	-0.147515
130.000000	35.000000	40.000000	0.939849	0.146411	0.308621
130.000000	35.000000	45.000000	0.344835	0.880855	0.324319
130.000000	35.000000	50.000000	-0.089872	0.696086	0.712312
130.000000	35.000000	55.000000	0.827687	0.356069	0.433761
130.000000	35.000000	60.000000	-0.050571	0.213052	0.975731
130.000000	40.000000	0.000000	-0.825421	0.402561	0.395759
130.000000	40.000000	5.000000	0.556243	0.000757	0.831019
130.000000	40.000000	10.000000	0.203725	-0.899974	-0.385412
130.000000	40.000000	15.000000	0.654865	-0.492841	-0.572939
130.000000	40.000000	20.000000	-0.965914	0.090373	-0.242574
130.000000	40.000000	25.000000	-0.033845	-0.970407	-0.239094
130.000000	40.000000	30.000000	-0.919780	0.000235	-0.392435
130.000000	40.000000	35.000000	-0.879219	0.461621	0.117812
130.000000	40.000000	40.000000	0.580541	-0.379893	0.720176
130.000000	40.000000	45.000000	0.482548	-0.775350	0.407407
130.000000	40.000000	50.000000	0.607296	-0.096958	-0.788537
130.000000	40.000000	55.000000	0.510906	0.815502	0.271904
130.000000	40.000000	60.000000	0.651714	0.459793	-0.603208
130.000000	40.000000	65.000000	-0.999666	0.019752	-0.016658
130.000000	45.000000	0.000000	-0.309437	0.637512	0.705569
130.000000	45.000000	5.000000	0.380740	0.596769	-0.706331
130.000000	45.000000	10.000000	-0.303773	0.552940	-0.775873
130.000000	45.000000	15.000000	0.487018	0.429074	-0.760729
130.000000	45.000000	20.000000	0.188005	0.636013	0.748426
130.000000	45.000000	25.000000	0.592161	-0.515696	-0.619196
130.000000	45.000000	30.000000	-0.216051	-0.105477	-0.970668
130.000000	45.000000	35.000000	-0.386983	-0.155470	-0.908886
130.000000	45.000000	40.000000	-0.910497	-0.361519	0.200748
130.000000	45.000000	45.000000	-0.265845	0.142651	-0.953403
130.000000	45.000000	50.000000	0.412931	-0.909847	0.040829
130.000000	45.000000	55.000000	-0.274080	-0.500543	0.821180
130.000000	45.000000	60.000000	0.784000	0.352682	-0.510843
130.000000	45.000000	65.000000	0.319658	0.164092	-0.933216
130.000000	50.000000	0.000000	-0.487510	-0.397721	0.777272
130.000000	50.000000	5.000000	-0.065213	0.106032	-0.992222
130.000000	50.000000	10.000000	0.550228	0.076490	-0.831503
130.000000	50.000000	15.000000	-0.199927	-0.000962	-0.979810
130.000000	50.000000	20.000000	0.631926	-0.603127	-0.486731
130.000000	50.000000	25.000000	-0.397785	0.546487	-0.736966
130.000000	50.000000	30.000000	0.873184	0.160232	-0.460299
130.000000	50.000000	35.000000	-0.830002	0.264231	0.491202
130.000000	50.000000	40.000000	-0.569754	0.501293	0.651218
130.000000	50.000000	45.000000	-0.308439	-0.276613	0.910138
130.000000	50.000000	50.000000	-0.593655	-0.307328	-0.743723
130.000000	50.000000	55.000000	-0.297782	0.699732	0.649385
130.000000	50.000000	60.000000	0.925371	0.378837	0.013059
130.000000	50.000000	65.000000	-0.799483	0.504356	-0.326270
130.000000	50.000000	70.000000	0.393666	0.540291	-0.743715
130.000000	55.000000	0.000000	-0.152879	0.964377	0.215884
130.000000	55.000000	5.000000	-0.047444	0.921955	-0.384379
130.000000	55.000000	10.000000	0.376326	0.919051	0.117146
130.000000	55.000000	15.000000	-0.545729	-0.175417	-0.819396
130.000000	55.000000	20.000000	0.215158	-0.748334	0.627458
130.000000	55.000000	25.000000	0.654534	-0.434365	-0.618798
130.000000	55.000000	30.000000	0.972251	0.233807	0.007909
130.000000	55.000000	35.000000	0.478390	-0.424647	-0.768646
130.000000	55.000000	40.000000	-0.665182	-0.544944	-0.510460
130.000000	55.000000	45.000000	-0.545101	-0.787954	0.286345
130.000000	55.000000	50.000000	-0.745511	-0.353276	-0.565163
130.000000	55.000000	55.000000	-0.189423	-0.131921	0.972993
130.000000	55.000000	60.000000	0.528800	0.668906	0.522431
130.000000	55.000000	65.000000	0.208837	-0.943091	-0.258778
130.000000	55.000000	70.000000	-0.089442	0.858669	-0.504667
130.000000	55.000000	75.000000	-0.242505	0.328851	-0.912715
130.000000	60.000000	0.000000	0.295924	-0.720394	-0.627265
130.000000	60.000000	5.000000	0.082473	0.359252	-0.929589
130.000000	60.000000	10.000000	-0.322218	0.652028	-0.686319
130.000000	60.000000	15.000000	-0.180220	-0.945974	0.269543
130.000000	60.000000	20.000000	-0.620099	0.617653	0.483716
130.000000	60.000000	25.000000	0.539452	-0.532731	0.652066
130.000000	60.000000	30.000000	-0.489831	0.863262	-0.121839
130.000000	60.000000	35.000000	0.477609	0.852848	-0.211045
130.000000	60.000000	40.000000	0.930562	0.344814	-0.123116
130.000000	60.000000	45.000000	-0.083737	0.988808	-0.123476
130.000000	60.000000	50.000000	-0.105354	0.251433	-0.962124
130.000000	60.000000	55.000000	-0.591634	0.054200	-0.804383
130.000000	60.000000	60.000000	0.087838	-0.967648	-0.236522
130.000000	60.000000	65.000000	0.064711	0.989870	-0.126370
130.000000	60.000000	70.000000	0.111977	0.752782	-0.648675
130.000000	60.000000	75.000000	-0.727147	0.210138	0.653528
130.000000	65.000000	0.000000	0.968774	-0.038834	-0.244886
130.000000	65.000000	5.000000	-0.592917	-0.731223	-0.337287
130.000000	65.000000	10.000000	0.586002	0.736625	-0.337618
130.000000	65.000000	15.000000	0.902503	-0.014105	-0.430453
130.000000	65.000000	20.000000	-0.897775	0.245379	-0.365772
130.000000	65.000000	25.000000	-0.149530	-0.958361	-0.243279
130.000000	65.000000	30.000000	0.451549	0.885303	0.111095
130.000000	65.000000	35.000000	0.400133	0.130472	-0.907122
130.000000	65.000000	40.000000	0.742473	-0.331531	-0.582084
130.000000	65.000000	45.000000	0.586331	0.809653	-0.026052
130.000000	65.000000	50.000000	0.502981	-0.839685	-0.204792
130.000000	65.000000	55.000000	0.206849	-0.975255	0.078040
130.000000	65.000000	60.000000	0.336302	-0.088794	0.937559
130.000000	65.000000	65.000000	0.632346	-0.414654	0.654371
130.000000	65.000000	70.000000	-0.714926	-0.489044	-0.499716
130.000000	65.000000	75.000000	-0.324485	-0.746957	0.580314
130.000000	70.000000	0.000000	0.925551	-0.362538	0.109187
130.000000	70.000000	5.000000	0.686843	-0.149461	-0.711272
130.000000	70.000000	10.000000	0.438423	0.897082	-0.055033
130.000000	70.000000	15.000000	0.373660	0.739335	0.560145
130.000000	70.000000	20.000000	0.759579	-0.630669	0.159049
130.000000	70.000000	25.000000	0.891181	0.277884	-0.358577
130.000000	70.000000	30.000000	0.439567	0.292821	-0.849139
130.000000	70.000000	35.000000	0.761351	-0.308720	0.570120
130.000000	70.000000	40.000000	-0.638072	-0.325464	0.697809
130.000000	70.000000	45.000000	0.919589	-0.390010	-0.047405
130.000000	70.000000	50.000000	-0.678470	-0.504690	0.533822
130.000000	70.000000	55.000000	0.115038	0.548230	0.828378
130.000000	70.000000	60.000000	-0.544081	0.805190	-0.235893
130.000000	70.000000	65.000000	-0.817558	0.472007	-0.329861
130.000000	70.000000	70.000000	0.809938	0.029808	-0.585758
130.000000	70.000000	75.000000	-0.312150	-0.258968	0.914056
130.000000	70.000000	80.000000	-0.454574	0.425286	-0.782620
130.000000	75.000000	0.000000	-0.550554	-0.252990	-0.795542
130.000000	75.000000	5.000000	-0.142283	-0.725666	0.673175
130.000000	75.000000	10.000000	0.795112	0.422083	-0.435479
130.000000	75.000000	15.000000	-0.997413	-0.070523	-0.013939
130.000000	75.000000	20.000000	-0.733347	0.021744	0.679506
130.000000	75.000000	25.000000	-0.254322	-0.026125	0.966767
130.000000	75.000000	30.000000	-0.291233	0.312137	0.904298
130.000000	75.000000	35.000000	0.512869	0.853514	-0.092080
130.000000	75.000000	40.000000	-0.612549	-0.515765	-0.598974
130.000000	75.000000	45.000000	-0.882884	-0.048662	0.467063
130.000000	75.000000	50.000000	0.549502	0.523422	0.651212
130.000000	75.000000	55.000000	-0.732672	0.679994	0.028289
130.000000	75.000000	60.000000	-0.739117	0.237576	0.630289
130.000000	75.000000	65.000000	0.140458	0.865000	0.481712
130.000000	75.000000	70.000000	-0.360968	0.172042	-0.916572
130.000000	75.000000	75.000000	0.500591	0.150872	0.852436
130.000000	75.000000	80.000000	-0.244836	0.654616	0.715216
130.000000	80.000000	0.000000	-0.173751	-0.656841	-0.733737
130.000000	80.000000	5.000000	0.921294	-0.216337	0.323133
130.000000	80.000000	10.000000	-0.362269	0.916084	-0.171904
130.000000	80.000000	15.000000	-0.506009	0.762531	0.403116
130.000000	80.000000	20.000000	0.368231	-0.929552	-0.018409
130.000000	80.000000	25.000000	-0.279528	-0.843785	0.458138
130.000000	80.000000	30.000000	-0.792844	-0.136775	-0.593878
130.000000	80.000000	35.000000	-0.906141	-0.272524	0.323479
130.000000	80.000000	40.000000	0.465659	0.702145	0.538659
130.000000	80.000000	45.000000	-0.822890	-0.216156	-0.525479
130.000000	80.000000	50.000000	0.112762	0.980103	0.163348
130.000000	80.000000	55.000000	-0.333729	0.669278	0.663846
130.000000	80.000000	60.000000	-0.661277	-0.464126	0.589322
130.000000	80.000000	65.000000	-0.552588	0.471796	0.687063
130.000000	80.000000	70.000000	-0.384734	0.850189	0.359385
130.000000	80.000000	75.000000	0.222558	-0.231413	0.947056
130.000000	80.000000	80.000000	0.988653	-0.127740	-0.079046
130.000000	85.000000	0.000000	0.155664	-0.891140	-0.426191
130.000000	85.000000	5.000000	-0.929056	-0.231084	0.288885
130.000000	85.000000	10.000000	-0.453161	-0.588130	0.669887
130.000000	85.000000	15.000000	-0.472564	0.874587	0.108542
130.000000	85.000000	20.000000	0.501332	0.865221	0.007643
130.000000	85.000000	25.000000	-0.835508	-0.318370	0.447848
130.000000	85.000000	30.000000	-0.224265	-0.950516	0.214997
130.000000	85.000000	35.000000	-0.953551	0.301224	-0.002053
130.000000	85.000000	40.000000	-0.153754	0.425910	-0.891606
130.000000	85.000000	45.000000	0.133356	0.556361	-0.820170
130.000000	85.000000	50.000000	-0.446407	0.694444	-0.564330
130.000000	85.000000	55.000000	0.106310	-0.923811	0.367792
130.000000	85.000000	60.000000	-0.614431	-0.778033	-0.130916
130.000000	85.000000	65.000000	0.460148	-0.020526	-0.887605
130.000000	85.000000	70.000000	0.188826	-0.036731	-0.981323
130.000000	85.000000	75.000000	-0.997756	-0.064192	-0.019015
130.000000	85.000000	80.000000	-0.890692	0.128227	0.436149
130.000000	90.000000	0.000000	0.199055	-0.952729	0.229529
130.000000	90.000000	5.000000	-0.285676	-0.314827	0.905137
130.000000	90.000000	10.000000	-0.172386	0.183255	-0.967833
130.000000	90.000000	15.000000	-0.121623	-0.078322	-0.989481
130.000000	90.000000	20.000000	0.776881	-0.424058	-0.465435
130.000000	90.000000	25.000000	-0.180502	-0.525018	0.831731
130.000000	90.000000	30.000000	0.317467	0.161344	-0.934442
130.000000	90.000000	35.000000	0.914046	-0.368210	0.170120
130.000000	90.000000	40.000000	-0.737586	0.293493	-0.608135
130.000000	90.000000	45.000000	-0.266501	0.494869	-0.827093
130.000000	90.000000	50.000000	-0.864202	0.038827	-0.501644
130.000000	90.000000	55.000000	-0.225182	-0.974221	0.013652
130.000000	90.000000	60.000000	0.525434	-0.071365	-0.847836
130.000000	90.000000	65.000000	-0.614303	-0.501816	-0.608944
130.000000	90.000000	70.000000	-0.810568	0.373018	-0.451483
130.000000	90.000000	75.000000	0.621069	0.775439	0.113878
130.000000	90.000000	80.000000	-0.630044	0.750451	0.199671
130.000000	95.000000	0.000000	0.896364	-0.341385	0.282820
130.000000	95.000000	5.000000	-0.459325	-0.715545	0.526323
130.000000	95.000000	10.000000	-0.920981	-0.236167	-0.309871
130.000000	95.000000	15.000000	0.383559	0.888189	0.252987
130.000000	95.000000	20.000000	-0.277605	0.952143	-0.127903
130.000000	95.000000	25.000000	-0.028058	-0.270213	-0.962392
130.000000	95.000000	30.000000	0.972029	0.207124	0.110723
130.000000	95.000000	35.000000	-0.520393	-0.729748	-0.443463
130.000000	95.000000	40.000000	0.880279	-0.401371	0.253004
130.000000	95.000000	45.000000	-0.428772	0.893854	-0.131074
130.000000	95.000000	50.000000	0.782552	0.359692	0.508168
130.000000	95.000000	55.000000	0.245284	0.934909	-0.256479
130.000000	95.000000	60.000000	-0.148374	-0.987299	-0.056792
130.000000	95.000000	65.000000	0.119834	0.992676	-0.015328
130.000000	95.000000	70.000000	-0.247625	0.966710	-0.064448
130.000000	95.000000	75.000000	-0.729970	0.476541	-0.489951
130.000000	95.000000	80.000000	-0.406603	-0.884911	0.227171
130.000000	100.000000	0.000000	-0.607924	-0.780714	-0.144617
130.000000	100.000000	5.000000	-0.792148	0.587389	0.165759
130.000000	100.000000	10.000000	-0.376833	0.834949	-0.401069
130.000000	100.000000	15.000000	0.814213	-0.531779	-0.232953
130.000000	100.000000	20.000000	0.881482	0.294485	-0.369144
130.000000	100.000000	25.000000	0.030805	-0.549668	0.834815
130.000000	100.000000	30.000000	-0.638958	0.707471	0.302024
130.000000	100.000000	35.000000	-0.436733	0.898613	0.041952
130.000000	100.000000	40.000000	-0.639254	0.692201	0.334981
130.000000	100.000000	45.000000	-0.800578	0.510482	0.313818
130.000000	100.000000	50.000000	0.150574	0.988475	-0.015660
130.000000	100.000000	55.000000	-0.804903	0.466359	-0.366934
130.000000	100.000000	60.000000	-0.911019	0.279202	-0.303463
130.000000	100.000000	65.000000	0.641134	-0.437022	-0.630840
130.000000	100.000000	70.000000	-0.015361	-0.974283	-0.224803
130.000000	100.000000	75.000000	-0.204761	0.953522	-0.221063
130.000000	100.000000	80.000000	-0.806976	0.570009	-0.154527
130.000000	105.000000	0.000000	0.935687	0.281025	0.213342
130.000000	105.000000	5.000000	0.749986	-0.657619	0.071121
130.000000	105.000000	10.000000	0.316868	0.947504	0.042796
130.000000	105.000000	15.000000	-0.183341	0.575956	0.796656
130.000000	105.000000	20.000000	0.451643	0.082423	0.888384
130.000000	105.000000	25.000000	0.705517	-0.385688	-0.594551
130.000000	105.000000	30.000000	-0.742064	0.179981	-0.645715
130.000000	105.000000	35.000000	0.992595	0.097736	0.072130
130.000000	105.000000	40.000000	0.156492	-0.040604	0.986844
130.000000	105.000000	45.000000	0.249094	-0.952193	-0.176862
130.000000	105.000000	50.000000	-0.068330	0.407937	0.910450
130.000000	105.000000	55.000000	0.537644	-0.437393	-0.720851
130.000000	105.000000	60.000000	-0.398313	-0.917177	0.011582
130.000000	105.000000	65.000000	-0.052965	-0.998541	0.010558
130.000000	105.000000	70.000000	0.277494	-0.797320	-0.535982
130.000000	105.000000	75.000000	0.443638	-0.161939	0.881454
130.000000	105.000000	80.000000	0.824347	-0.551913	0.125870
130.000000	110.000000	0.000000	0.545877	-0.659875	-0.516317
130.000000	110.000000	5.000000	0.616834	0.776869	0.126456
130.000000	110.000000	10.000000	0.583259	-0.361194	0.727563
130.000000	110.000000	15.000000	0.141544	0.071321	-0.987359
130.000000	110.000000	20.000000	-0.655794	0.697486	-0.288873
130.000000	110.000000	25.000000	0.972061	0.220559	0.080313
130.000000	110.000000	30.000000	0.821647	-0.178678	0.541267
130.000000	110.000000	35.000000	-0.528040	-0.101678	-0.843111
130.000000	110.000000	40.000000	0.612595	-0.387468	0.688909
130.000000	110.000000	45.000000	-0.919666	-0.322682	-0.223810
130.000000	110.000000	50.000000	-0.884086	-0.167768	-0.436171
130.000000	110.000000	55.000000	0.600182	-0.460926	0.653704
130.000000	110.000000	60.000000	0.494468	0.869188	-0.003750
130.000000	110.000000	65.000000	-0.929356	-0.178047	0.323414
130.000000	110.000000	70.000000	-0.306071	-0.888266	0.342497
130.000000	110.000000	75.000000	0.821199	0.138515	-0.553576
130.000000	110.000000	80.000000	-0.978771	0.039992	-0.201018
130.000000	115.000000	0.000000	-0.350933	-0.658057	-0.666189
130.000000	115.000000	5.000000	-0.871037	-0.235683	0.430984
130.000000	115.000000	10.000000	-0.790451	0.506383	0.344621
130.000000	115.000000	15.000000	0.399882	0.504136	-0.765468
130.000000	115.000000	20.000000	0.000720	-0.760892	0.648879
130.000000	115.000000	25.000000	0.400376	-0.032702	-0.915767
130.000000	115.000000	30.000000	0.431214	0.895849	-0.107279
130.000000	115.000000	35.000000	-0.756947	0.138804	0.638565
130.000000	115.000000	40.000000	-0.266300	0.963844	0.009431
130.000000	115.000000	45.000000	0.004066	-0.998112	-0.061289
130.000000	115.000000	50.000000	-0.810787	0.238906	-0.534367
130.000000	115.000000	55.000000	-0.517197	-0.747871	-0.416169
130.000000	115.000000	60.000000	-0.448685	0.776413	-0.442566
130.000000	115.000000	65.000000	-0.140903	-0.793038	-0.592653
130.000000	115.000000	70.000000	0.424836	-0.209123	0.880785
130.000000	115.000000	75.000000	-0.456910	-0.888508	-0.042266
130.000000	115.000000	80.000000	-0.053371	0.834430	-0.548524
130.000000	120.000000	0.000000	0.662806	-0.235637	0.710748
130.000000	120.000000	5.000000	-0.364895	-0.826658	0.428354
130.000000	120.000000	10.000000	0.354975	0.928870	-0.105800
130.000000	120.000000	15.000000	-0.809952	-0.560097	-0.173981
130.000000	120.000000	20.000000	-0.005021	-0.445129	-0.895452
130.000000	120.000000	25.000000	0.431824	0.516273	-0.739588
130.000000	120.000000	30.000000	0.923219	-0.157536	-0.350499
130.000000	120.000000	35.000000	-0.255730	0.320219	-0.912174
130.000000	120.000000	40.000000	-0.082804	0.718873	0.690192
130.000000	120.000000	45.000000	0.815288	0.113543	0.567815
130.000000	120.000000	50.000000	0.528379	0.645456	-0.551546
130.000000	120.000000	55.000000	0.116685	-0.341131	0.932746
130.000000	120.000000	60.000000	0.281483	0.934973	0.215855
130.000000	120.000000	65.000000	0.054356	0.908394	-0.414567
130.000000	120.000000	70.000000	0.129375	-0.761660	-0.634930
130.000000	120.000000	75.000000	0.510916	0.821659	-0.252668
130.000000	125.000000	0.000000	-0.816752	0.570130	0.088700
130.000000	125.000000	5.000000	0.326619	-0.940909	0.089498
130.000000	125.000000	10.000000	-0.040774	0.999168	-0.000199
130.000000	125.000000	15.000000	0.761258	-0.024775	0.647975
130.000000	125.000000	20.000000	0.081159	0.717195	0.692131
130.000000	125.000000	25.000000	-0.271725	-0.845725	0.459254
130.000000	125.000000	30.000000	-0.513125	-0.021157	-0.858053
130.000000	125.000000	35.000000	0.436230	0.450979	0.778667
130.000000	125.000000	40.000000	0.191197	-0.976501	0.099447
130.000000	125.000000	45.000000	0.672007	-0.719622	-0.174790
130.000000	125.000000	50.000000	-0.228233	-0.325296	-0.917656
130.000000	125.000000	55.000000	0.818217	0.497515	0.288096
130.000000	125.000000	60.000000	-0.867124	-0.476565	0.144848
130.000000	125.000000	65.000000	-0.939665	-0.151436	-0.306751
130.000000	125.000000	70.000000	-0.659925	0.204525	0.722958
130.000000	125.000000	75.000000	-0.708264	-0.701059	0.082932
130.000000	130.000000	0.000000	-0.715244	-0.430667	0.550411
130.000000	130.000000	5.000000	-0.831450	-0.023512	0.555102
130.000000	130.000000	10.000000	-0.945775	-0.265227	-0.187521
130.000000	130.000000	15.000000	0.357229	-0.551632	0.753717
130.000000	130.000000	20.000000	0.274816	0.001893	-0.961495
130.000000	130.000000	25.000000	0.242280	-0.520803	-0.818575
130.000000	130.000000	30.000000	-0.676770	-0.694179	-0.245148
130.000000	130.000000	35.000000	-0.226550	0.973331	0.036096
130.000000	130.000000	40.000000	0.558424	0.061264	0.827290
130.000000	130.000000	45.000000	-0.938554	-0.262709	-0.223829
130.000000	130.000000	50.000000	-0.819306	-0.487453	0.301874
130.000000	130.000000	55.000000	0.888368	-0.183950	-0.420671
130.000000	130.000000	60.000000	-0.466108	-0.884160	0.031692
130.000000	130.000000	65.000000	0.806250	-0.416588	0.420018
130.000000	130.000000	70.000000	0.448544	-0.879210	-0.160615
130.000000	135.000000	0.000000	0.673631	-0.592616	-0.441618
130.000000	135.000000	5.000000	-0.059810	0.820937	-0.567877
130.000000	135.000000	10.000000	0.187264	-0.961614	0.200577
130.000000	135.000000	15.000000	-0.725268	-0.663030	0.185412
130.000000	135.000000	20.000000	0.829599	0.550206	0.095071
130.000000	135.000000	25.000000	-0.894005	0.260006	0.364900
130.000000	135.000000	30.000000	-0.946162	0.207323	0.248586
130.000000	135.000000	35.000000	-0.016603	-0.413653	0.910283
130.000000	135.000000	40.000000	-0.693232	0.637344	0.336487
130.000000	135.000000	45.000000	-0.930863	-0.326052	-0.164875
130.000000	135.000000	50.000000	0.975044	0.156878	0.157095
130.000000	135.000000	55.000000	-0.094043	0.243498	-0.965331
130.000000	135.000000	60.000000	-0.659162	0.750445	-0.048358
130.000000	135.000000	65.000000	0.642487	-0.310067	0.700763
130.000000	135.000000	70.000000	-0.726474	-0.437976	-0.529540
130.000000	140.000000	0.000000	0.546470	0.836884	0.031546
130.000000	140.000000	5.000000	-0.049962	-0.595148	0.802061
130.000000	140.000000	10.000000	-0.395354	0.890211	0.226317
130.000000	140.000000	15.000000	0.126013	-0.373768	-0.918922
130.000000	140.000000	20.000000	-0.610680	-0.389813	-0.689286
130.000000	140.000000	25.000000	-0.963245	0.096476	0.250702
130.000000	140.000000	30.000000	-0.118192	-0.449909	-0.885219
130.000000	140.000000	35.000000	0.477173	0.725501	-0.495938
130.000000	140.000000	40.000000	0.723538	-0.669613	0.167664
130.000000	140.000000	45.000000	0.538748	0.090355	-0.837607
130.000000	140.000000	50.000000	-0.397543	0.838294	-0.373127
130.000000	140.000000	55.000000	0.712985	-0.257577	-0.652155
130.000000	140.000000	60.000000	0.322164	-0.136027	-0.936860
130.000000	140.000000	65.000000	-0.158650	0.856883	-0.490492
130.000000	145.000000	0.000000	-0.254325	-0.544086	0.799556
130.000000	145.000000	5.000000	0.241786	0.970327	0.002328
130.000000	145.000000	10.000000	0.424191	-0.880182	0.212934
130.000000	145.000000	15.000000	0.778213	-0.539991	-0.320614
130.000000	145.000000	20.000000	0.954726	0.009181	0.297346
130.000000	145.000000	25.000000	0.502303	-0.540630	0.674841
130.000000	145.000000	30.000000	-0.026089	-0.903542	-0.427705
130.000000	145.000000	35.000000	0.922712	-0.346590	0.168752
130.000000	145.000000	40.000000	-0.346005	-0.070517	-0.935579
130.000000	145.000000	45.000000	0.846285	0.532564	0.013297
130.000000	145.000000	50.000000	0.072848	-0.857377	0.509508
130.000000	145.000000	55.000000	0.745899	-0.429337	-0.509220
130.000000	145.000000	60.000000	0.610089	-0.043537	0.791136
130.000000	150.000000	0.000000	-0.318031	-0.867007	-0.383608
130.000000	150.000000	5.000000	0.789560	0.278226	-0.546978
130.000000	150.000000	10.000000	0.626594	0.543403	-0.558653
130.000000	150.000000	15.000000	-0.534081	-0.623863	-0.570572
130.000000	150.000000	20.000000	-0.009476	0.896866	0.442201
130.000000	150.000000	25.000000	-0.943388	0.085490	-0.320485
130.000000	150.000000	30.000000	0.716995	-0.656571	0.234163
130.000000	150.000000	35.000000	-0.517141	0.851912	0.082534
130.000000	150.000000	40.000000	0.714875	-0.604627	-0.351255
130.000000	150.000000	45.000000	-0.584314	-0.753294	-0.301870
130.000000	150.000000	50.000000	0.930761	0.303367	-0.204090
130.000000	150.000000	55.000000	0.456918	-0.627421	-0.630531
130.000000	150.000000	60.000000	-0.215529	-0.651469	0.727417
130.000000	155.000000	0.000000	0.037245	0.553459	-0.832043
130.000000	155.000000	5.000000	-0.139005	-0.850878	0.506639
130.000000	155.000000	10.000000	-0.237393	-0.656513	0.715986
130.000000	155.000000	15.000000	0.057458	0.862250	-0.503214
130.000000	155.000000	20.000000	0.314216	-0.684004	-0.658337
130.000000	155.000000	25.000000	0.851311	0.177625	-0.493680
130.000000	155.000000	30.000000	-0.075893	-0.573382	0.815765
130.000000	155.000000	35.000000	-0.504422	0.653010	0.564922
130.000000	155.000000	40.000000	0.265667	0.954589	-0.134835
130.000000	155.000000	45.000000	-0.904524	0.389804	0.172884
130.000000	155.000000	50.000000	0.423734	-0.276814	-0.862452
130.000000	155.000000	55.000000	-0.923726	-0.295735	0.243455
130.000000	160.000000	0.000000	-0.197972	-0.705278	-0.680728
130.000000	160.000000	5.000000	0.095223	-0.464249	0.880571
130.000000	160.000000	10.000000	0.596548	0.349230	-0.722613
130.000000	160.000000	15.000000	0.660136	-0.446603	-0.603959
130.000000	160.000000	20.000000	0.254888	-0.219983	0.941615
130.000000	160.000000	25.000000	-0.492570	0.866584	0.080046
130.000000	160.000000	30.000000	-0.053269	-0.419979	-0.905969
130.000000	160.000000	35.000000	0.980522	-0.192822	-0.037359
130.000000	160.000000	40.000000	0.349843	0.816265	-0.459697
130.000000	160.000000	45.000000	-0.250170	-0.036983	0.967495
130.000000	165.000000	0.000000	0.370578	0.668523	-0.644786
130.000000	165.000000	5.000000	-0.454564	0.634084	0.625547
130.000000	165.000000	10.000000	-0.904090	0.396047	-0.160521
130.000000	165.000000	15.000000	-0.248699	0.362071	0.898362
130.000000	165.000000	20.000000	0.497451	-0.760069	-0.418136
130.000000	165.000000	25.000000	-0.465442	-0.061456	0.882942
130.000000	165.000000	30.000000	-0.689161	0.718020	-0.097492
130.000000	165.000000	35.000000	-0.787098	-0.220343	0.576129
130.000000	165.000000	40.000000	-0.840030	0.409274	0.356152
130.000000	170.000000	0.000000	-0.192575	0.097436	-0.976433
130.000000	170.000000	5.000000	0.384154	0.527652	0.757634
130.000000	170.000000	10.000000	-0.275449	-0.665812	-0.693413
130.000000	170.000000	15.000000	0.288101	-0.512041	0.809205
130.000000	170.000000	20.000000	0.020772	-0.996190	-0.084694
130.000000	170.000000	25.000000	0.242622	0.012130	-0.970045
130.000000	170.000000	30.000000	-0.668909	-0.132342	0.731468
130.000000	175.000000	0.000000	0.295074	-0.553391	-0.778903
130.000000	175.000000	5.000000	-0.694591	0.596796	0.401719
130.000000	175.000000	10.000000	-0.195172	0.469817	0.860918
135.000000	15.000000	0.000000	-0.072694	-0.976618	0.202317
135.000000	15.000000	5.000000	-0.630568	-0.424939	-0.649469
135.000000	15.000000	10.000000	-0.334021	0.330150	-0.882854
135.000000	15.000000	15.000000	-0.517828	0.503980	-0.691273
135.000000	15.000000	20.000000	-0.223944	-0.873035	-0.433196
135.000000	15.000000	25.000000	0.993402	-0.113688	-0.015084
135.000000	20.000000	0.000000	-0.554639	0.566636	-0.609344
135.000000	20.000000	5.000000	0.374146	0.118210	-0.919805
135.000000	20.000000	10.000000	-0.724622	-0.638165	0.260131
135.000000	20.000000	15.000000	0.150997	-0.869940	0.469473
135.000000	20.000000	20.000000	-0.882079	0.152699	0.445668
135.000000	20.000000	25.000000	-0.214684	-0.794539	-0.567995
135.000000	20.000000	30.000000	-0.669293	0.587850	-0.454400
135.000000	20.000000	35.000000	-0.938743	-0.257936	0.228540
135.000000	25.000000	0.000000	0.152690	-0.988243	0.007832
135.000000	25.000000	5.000000	0.709593	0.676350	-0.197558
135.000000	25.000000	10.000000	0.086131	-0.429701	0.898854
135.000000	25.000000	15.000000	0.482496	0.429313	-0.763471
135.000000	25.000000	20.000000	-0.977876	0.066148	0.198453
135.000000	25.000000	25.000000	0.820615	0.145297	0.552702
135.000000	25.000000	30.000000	0.598139	0.791611	0.124825
135.000000	25.000000	35.000000	-0.127461	0.231826	-0.964370
135.000000	25.000000	40.000000	-0.288727	-0.322792	0.901356
135.000000	25.000000	45.000000	0.033463	0.960371	-0.276708
135.000000	30.000000	0.000000	0.895860	0.082473	-0.436615
135.000000	30.000000	5.000000	0.957246	-0.282774	-0.060979
135.000000	30.000000	10.000000	-0.465564	0.377232	-0.800591
135.000000	30.000000	15.000000	0.914289	0.370468	-0.163798
135.000000	30.000000	20.000000	-0.062634	-0.184234	-0.980885
135.000000	30.000000	25.000000	-0.439433	0.122616	-0.889867
135.000000	30.000000	30.000000	-0.862286	-0.177571	-0.474270
135.000000	30.000000	35.000000	-0.763506	0.372541	0.527516
135.000000	30.000000	40.000000	0.551946	0.808859	0.202739
135.000000	30.000000	45.000000	0.235202	-0.478772	-0.845847
135.000000	30.000000	50.000000	0.877391	0.479602	-0.012945
135.000000	35.000000	0.000000	0.912202	0.033328	0.408384
135.000000	35.000000	5.000000	0.782203	-0.591994	0.194171
135.000000	35.000000	10.000000	0.452374	0.510295	-0.731408
135.000000	35.000000	15.000000	0.193375	-0.512084	0.836885
135.000000	35.000000	20.000000	-0.242035	-0.864097	-0.441310
135.000000	35.000000	25.000000	-0.981876	0.028423	0.187383
135.000000	35.000000	30.000000	-0.414961	0.791875	-0.448041
135.000000	35.000000	35.000000	-0.433820	0.325837	-0.840018
135.000000	35.000000	40.000000	-0.438079	-0.402240	-0.803921
135.000000	35.000000	45.000000	-0.977248	0.155055	0.144721
135.000000	35.000000	50.000000	0.747051	-0.344215	0.568710
135.000000	35.000000	55.000000	-0.012770	0.975845	0.218091
135.000000	40.000000	0.000000	0.833019	-0.446704	0.326396
135.000000	40.000000	5.000000	-0.343065	-0.144781	0.928087
135.000000	40.000000	10.000000	0.502225	0.857455	-0.111982
135.000000	40.000000	15.000000	0.369941	0.702405	0.608088
135.000000	40.000000	20.000000	0.058528	0.697462	-0.714228
135.000000	40.000000	25.000000	-0.601153	-0.466586	0.648777
135.000000	40.000000	30.000000	-0.478239	-0.805971	0.348854
135.000000	40.000000	35.000000	-0.937912	-0.231949	0.257916
135.000000	40.000000	40.000000	0.613747	0.735239	0.287643
135.000000	40.000000	45.000000	-0.592159	0.323143	-0.738191
135.000000	40.000000	50.000000	0.958970	-0.194981	-0.205811
135.000000	40.000000	55.000000	-0.063851	-0.979041	0.193396
135.000000	40.000000	60.000000	0.433637	0.747484	-0.503216
135.000000	45.000000	0.000000	-0.294049	0.819035	-0.492663
135.000000	45.000000	5.000000	0.894657	0.345475	0.283260
135.000000	45.000000	10.000000	0.712487	0.208949	-0.669852
135.000000	45.000000	15.000000	0.857418	-0.277640	-0.433301
135.000000	45.000000	20.000000	-0.792234	-0.490987	-0.362349
135.000000	45.000000	25.000000	-0.362425	0.319217	-0.875642
135.000000	45.000000	30.000000	0.388943	-0.103001	0.915486
135.000000	45.000000	35.000000	0.934818	-0.308218	0.176398
135.000000	45.000000	40.000000	-0.223911	0.925875	0.304333
135.000000	45.000000	45.000000	-0.310981	-0.682587	0.661336
135.000000	45.000000	50.000000	0.656859	0.220821	0.720954
135.000000	45.000000	55.000000	-0.348815	-0.789407	-0.505139
135.000000	45.000000	60.000000	0.918937	-0.014853	-0.394124
135.000000	45.000000	65.000000	0.041553	-0.976493	0.211508
135.000000	50.000000	0.000000	0.664454	-0.020472	0.747049
135.000000	50.000000	5.000000	0.357473	0.753448	-0.551842
135.000000	50.000000	10.000000	0.229610	0.696709	-0.679615
135.000000	50.000000	15.000000	-0.742008	-0.264749	-0.615899
135.000000	50.000000	20.000000	0.298263	-0.456005	0.838510
135.000000	50.000000	25.000000	0.339756	0.611259	-0.714793
135.000000	50.000000	30.000000	-0.866813	-0.492950	-0.075071
135.000000	50.000000	35.000000	-0.888051	0.360768	-0.284977
135.000000	50.000000	40.000000	-0.825301	-0.223349	-0.518645
135.000000	50.000000	45.000000	-0.902427	-0.134119	0.409437
135.000000	50.000000	50.000000	-0.450566	0.468696	0.759812
135.000000	50.000000	55.000000	-0.475706	0.856259	0.201308
135.000000	50.000000	60.000000	0.048697	0.158370	0.986178
135.000000	50.000000	65.000000	0.708120	-0.652486	-0.269867
135.000000	55.000000	0.000000	-0.374077	-0.282492	0.883326
135.000000	55.000000	5.000000	0.213869	0.407505	-0.887806
135.000000	55.000000	10.000000	0.429946	0.902244	0.033211
135.000000	55.000000	15.000000	0.921466	0.142458	0.361395
135.000000	55.000000	20.000000	-0.923273	-0.311270	0.225115
135.000000	55.000000	25.000000	0.988385	-0.112826	-0.101809
135.000000	55.000000	30.000000	-0.663935	-0.590444	0.458875
135.000000	55.000000	35.000000	-0.574241	-0.516017	-0.635590
135.000000	55.000000	40.000000	0.852241	0.009731	-0.523059
135.000000	55.000000	45.000000	0.195841	-0.879367	-0.434004
135.000000	55.000000	50.000000	0.634930	-0.766190	-0.099083
135.000000	55.000000	55.000000	0.193446	0.653545	-0.731750
135.000000	55.000000	60.000000	-0.553595	0.793010	0.254298
135.000000	55.000000	65.000000	0.592719	-0.512069	-0.621667
135.000000	55.000000	70.000000	-0.535053	0.722345	0.438105
135.000000	60.000000	0.000000	0.347457	-0.909022	0.230114
135.000000	60.000000	5.000000	0.979806	0.002910	0.199930
135.000000	60.000000	10.000000	-0.633894	0.065028	-0.770682
135.000000	60.000000	15.000000	-0.739202	0.153148	0.655840
135.000000	60.000000	20.000000	-0.945411	0.126563	0.300300
135.000000	60.000000	25.000000	0.430837	-0.311440	0.846985
135.000000	60.000000	30.000000	0.449007	0.619589	-0.643819
135.000000	60.000000	35.000000	0.345362	-0.728303	-0.591861
135.000000	60.000000	40.000000	-0.035438	0.693071	0.719998
135.000000	60.000000	45.000000	0.530180	0.835958	0.141720
135.000000	60.000000	50.000000	-0.652688	0.691672	-0.309174
135.000000	60.000000	55.000000	-0.837626	-0.327546	-0.437145
135.000000	60.000000	60.000000	-0.667187	-0.716367	-0.204158
135.000000	60.000000	65.000000	0.900502	0.039166	0.433085
135.000000	60.000000	70.000000	0.942112	-0.145494	-0.302086
135.000000	65.000000	0.000000	-0.745116	0.020081	0.666632
135.000000	65.000000	5.000000	-0.871464	0.481228	0.094712
135.000000	65.000000	10.000000	-0.030438	0.352229	0.935419
135.000000	65.000000	15.000000	-0.016333	0.193433	-0.980978
135.000000	65.000000	20.000000	-0.253186	0.149237	-0.955837
135.000000	65.000000	25.000000	-0.062086	-0.027344	0.997696
135.000000	65.000000	30.000000	-0.085966	-0.996295	0.002455
135.000000	65.000000	35.000000	0.556125	-0.830742	0.024336
135.000000	65.000000	40.000000	0.048367	0.662717	-0.747306
135.000000	65.000000	45.000000	0.251928	0.068861	-0.965293
135.000000	65.000000	50.000000	0.487348	-0.706729	-0.512860
135.000000	65.000000	55.000000	-0.437214	0.087658	0.895075
135.000000	65.000000	60.000000	0.429504	-0.879394	0.205408
135.000000	65.000000	65.000000	-0.027116	-0.297372	0.954377
135.000000	65.000000	70.000000	-0.362600	0.663390	-0.654549
135.000000	65.000000	75.000000	0.612907	0.591677	0.523701
135.000000	70.000000	0.000000	-0.939178	0.184724	-0.289521
135.000000	70.000000	5.000000	-0.739657	-0.369588	-0.562417
135.000000	70.000000	10.000000	0.279368	0.886372	-0.369186
135.000000	70.000000	15.000000	0.006823	-0.936413	-0.350835
135.000000	70.000000	20.000000	-0.777725	-0.268037	0.568596
135.000000	70.000000	25.000000	0.708647	-0.687496	0.158648
135.000000	70.000000	30.000000	0.392881	-0.809695	0.435935
135.000000	70.000000	35.000000	-0.684670	-0.714691	-0.142982
135.000000	70.000000	40.000000	0.890925	-0.378666	-0.250730
135.000000	70.000000	45.000000	0.219016	-0.781674	-0.583968
135.000000	70.000000	50.000000	0.878330	-0.475759	-0.046798
135.000000	70.000000	55.000000	0.318874	0.521866	0.791186
135.000000	70.000000	60.000000	-0.476258	-0.513269	0.713956
135.000000	70.000000	65.000000	0.423609	-0.544614	-0.723844
135.000000	70.000000	70.000000	-0.109521	0.774300	0.623270
135.000000	70.000000	75.000000	-0.547716	-0.215848	0.808342
135.000000	75.000000	0.000000	-0.015511	-0.824137	-0.566178
135.000000	75.000000	5.000000	-0.972776	0.065573	-0.222276
135.000000	75.000000	10.000000	0.134253	-0.854128	0.502436
135.000000	75.000000	15.000000	0.721023	-0.291041	0.628825
135.000000	75.000000	20.000000	0.052220	0.431875	0.900420
135.000000	75.000000	25.000000	0.566962	-0.442687	0.694681
135.000000	75.000000	30.000000	0.034003	-0.878317	-0.476868
135.000000	75.000000	35.000000	0.636424	0.157342	-0.755121
135.000000	75.000000	40.000000	0.972230	-0.183548	0.145187
135.000000	75.000000	45.000000	0.107178	0.494819	-0.862361
135.000000	75.000000	50.000000	0.326718	-0.915988	0.232853
135.000000	75.000000	55.000000	-0.460057	-0.860063	-0.220540
135.000000	75.000000	60.000000	0.830008	-0.282170	-0.481111
135.000000	75.000000	65.000000	0.817030	0.277441	-0.505458
135.000000	75.000000	70.000000	0.025559	0.451963	0.891670
135.000000	75.000000	75.000000	0.482726	0.756029	-0.442037
135.000000	80.000000	0.000000	0.150155	0.974285	0.167993
135.000000	80.000000	5.000000	0.238269	0.889150	0.390692
135.000000	80.000000	10.000000	-0.886002	-0.370110	0.279319
135.000000	80.000000	15.000000	-0.123743	-0.796127	0.592342
135.000000	80.000000	20.000000	0.939965	-0.017674	0.340814
135.000000	80.000000	25.000000	-0.519265	-0.830068	-0.203350
135.000000	80.000000	30.000000	-0.448911	-0.752458	0.481960
135.000000	80.000000	35.000000	-0.704959	0.589529	-0.394320
135.000000	80.000000	40.000000	-0.603439	-0.764860	0.225500
135.000000	80.000000	45.000000	0.523326	-0.612067	-0.592878
135.000000	80.000000	50.000000	-0.644297	0.206234	0.736444
135.000000	80.000000	55.000000	0.537243	0.775550	-0.331499
135.000000	80.000000	60.000000	0.748765	0.248551	0.614469
135.000000	80.000000	65.000000	-0.775763	-0.160931	-0.610158
135.000000	80.000000	70.000000	-0.296851	0.926610	-0.230811
135.000000	80.000000	75.000000	-0.955465	0.295027	-0.006672
135.000000	80.000000	80.000000	-0.564392	0.081942	-0.821430
135.000000	85.000000	0.000000	-0.932410	0.044889	-0.358603
135.000000	85.000000	5.000000	-0.099048	0.982881	0.155354
135.000000	85.000000	10.000000	0.833616	0.523814	0.175225
135.000000	85.000000	15.000000	0.012402	0.985266	-0.170576
135.000000	85.000000	20.000000	-0.821371	-0.533952	0.200612
135.000000	85.000000	25.000000	0.142147	0.632400	0.761488
135.000000	85.000000	30.000000	0.296547	0.843079	0.448640
135.000000	85.000000	35.000000	0.531938	0.341803	0.774734
135.000000	85.000000	40.000000	-0.514006	-0.322060	-0.795031
135.000000	85.000000	45.000000	-0.831044	0.469001	0.299006
135.000000	85.000000	50.000000	0.691231	0.198570	0.694816
135.000000	85.000000	55.000000	-0.240532	0.958210	-0.154849
135.000000	85.000000	60.000000	-0.260717	-0.921066	-0.289247
135.000000	85.000000	65.000000	0.607718	-0.697061	0.380505
135.000000	85.000000	70.000000	0.732451	-0.436121	0.522794
135.000000	85.000000	75.000000	-0.396351	0.863161	-0.312825
135.000000	85.000000	80.000000	0.009874	-0.283621	0.958886
135.000000	90.000000	0.000000	0.683021	-0.010145	-0.730328
135.000000	90.000000	5.000000	0.111632	-0.226491	0.967595
135.000000	90.000000	10.000000	0.067095	0.599255	-0.797741
135.000000	90.000000	15.000000	0.569940	0.820934	0.035148
135.000000	90.000000	20.000000	0.518332	-0.391305	0.760403
135.000000	90.000000	25.000000	-0.438656	-0.849163	0.294115
135.000000	90.000000	30.000000	0.125978	0.663106	0.737848
135.000000	90.000000	35.000000	0.790713	-0.502218	0.350071
135.000000	90.000000	40.000000	0.531962	0.648702	-0.544244
135.000000	90.000000	45.000000	0.538171	0.567480	0.623169
135.000000	90.000000	50.000000	0.772945	0.355313	0.525651
135.000000	90.000000	55.000000	0.716813	0.567888	-0.404577
135.000000	90.000000	60.000000	-0.685070	-0.047880	0.726902
135.000000	90.000000	65.000000	0.618341	0.611896	-0.493192
135.000000	90.000000	70.000000	0.188669	-0.895836	-0.402346
135.000000	90.000000	75.000000	-0.194286	0.964912	-0.176630
135.000000	90.000000	80.000000	-0.289045	-0.106593	-0.951363
135.000000	95.000000	0.000000	0.133130	0.665138	-0.734757
135.000000	95.000000	5.000000	0.861430	0.166960	0.479649
135.000000	95.000000	10.000000	0.531903	-0.688743	0.492659
135.000000	95.000000	15.000000	0.594231	0.503346	0.627321
135.000000	95.000000	20.000000	0.972172	0.079801	0.220258
135.000000	95.000000	25.000000	-0.250503	0.947561	0.198438
135.000000	95.000000	30.000000	0.895470	0.087717	0.436393
135.000000	95.000000	35.000000	-0.310093	-0.572033	-0.759355
135.000000	95.000000	40.000000	-0.592809	0.715988	-0.368698
135.000000	95.000000	45.000000	-0.028074	0.075078	0.996782
135.000000	95.000000	50.000000	-0.978034	-0.183270	0.099301
135.000000	95.000000	55.000000	0.559792	0.693458	-0.453595
135.000000	95.000000	60.000000	-0.601122	-0.789988	-0.120712
135.000000	95.000000	65.000000	-0.995711	0.042425	-0.082221
135.000000	95.000000	70.000000	0.652295	0.530342	-0.541525
135.000000	95.000000	75.000000	-0.335005	-0.840095	0.426628
135.000000	95.000000	80.000000	-0.232461	0.515703	-0.824629
135.000000	100.000000	0.000000	-0.790684	0.354076	-0.499449
135.000000	100.000000	5.000000	0.619968	-0.426461	0.658612
135.000000	100.000000	10.000000	-0.011302	0.999376	-0.033458
135.000000	100.000000	15.000000	-0.168770	0.779865	-0.602767
135.000000	100.000000	20.000000	-0.734117	0.564237	-0.377769
135.000000	100.000000	25.000000	0.728040	-0.557701	0.398658
135.000000	100.000000	30.000000	-0.585885	0.264132	0.766141
135.000000	100.000000	35.000000	-0.135299	-0.844897	-0.517535
135.000000	100.000000	40.000000	0.462754	0.820938	0.334543
135.000000	100.000000	45.000000	-0.205612	-0.363932	-0.908448
135.000000	100.000000	50.000000	-0.807730	0.360385	-0.466578
135.000000	100.000000	55.000000	0.467803	0.535928	0.702810
135.000000	100.000000	60.000000	0.048155	-0.431283	-0.900931
135.000000	100.000000	65.000000	0.909590	0.072223	-0.409182
135.000000	100.000000	70.000000	-0.216234	-0.492184	-0.843207
135.000000	100.000000	75.000000	0.933992	-0.162319	0.318294
135.000000	100.000000	80.000000	0.558648	0.824791	0.087366
135.000000	105.000000	0.000000	-0.255505	-0.158418	0.953741
135.000000	105.000000	5.000000	0.697744	-0.414301	-0.584387
135.000000	105.000000	10.000000	0.540423	0.690328	-0.481031
135.000000	105.000000	15.000000	-0.789265	0.209753	0.577117
135.000000	105.000000	20.000000	0.407083	-0.154991	0.900145
135.000000	105.000000	25.000000	0.775076	-0.353480	0.523746
135.000000	105.000000	30.000000	0.288346	0.517734	0.805486
135.000000	105.000000	35.000000	-0.911198	0.245173	-0.331072
135.000000	105.000000	40.000000	0.778238	-0.610224	-0.148230
135.000000	105.000000	45.000000	0.894709	0.331241	-0.299626
135.000000	105.000000	50.000000	0.282219	-0.680888	-0.675828
135.000000	105.000000	55.000000	-0.657377	0.750808	-0.064360
135.000000	105.000000	60.000000	0.534653	-0.621058	-0.573091
135.000000	105.000000	65.000000	-0.964069	0.009859	-0.265470
135.000000	105.000000	70.000000	0.961145	-0.120022	0.248585
135.000000	105.000000	75.000000	0.163019	-0.741414	0.650946
135.000000	105.000000	80.000000	0.183961	-0.035082	0.982307
135.000000	110.000000	0.000000	-0.657750	-0.753186	-0.008722
135.000000	110.000000	5.000000	0.928184	0.346191	0.136480
135.000000	110.000000	10.000000	-0.174472	0.729216	-0.661667
135.000000	110.000000	15.000000	-0.570650	0.206936	0.794692
135.000000	110.000000	20.000000	-0.709169	0.151439	0.688582
135.000000	110.000000	25.000000	0.809511	-0.351013	-0.470618
135.000000	110.000000	30.000000	-0.625514	-0.779901	-0.022049
135.000000	110.000000	35.000000	0.835398	-0.540910	0.097605
135.000000	110.000000	40.000000	-0.742091	0.657797	-0.128861
135.000000	110.000000	45.000000	0.029441	0.982782	-0.182411
135.000000	110.000000	50.000000	-0.935511	0.352222	0.027559
135.000000	110.000000	55.000000	-0.887507	-0.350887	0.298681
135.000000	110.000000	60.000000	0.714537	-0.237822	-0.657935
135.000000	110.000000	65.000000	-0.764004	0.645206	0.002601
135.000000	110.000000	70.000000	0.772155	0.610304	-0.176933
135.000000	110.000000	75.000000	-0.713009	0.560304	0.421517
135.000000	115.000000	0.000000	-0.064125	0.476869	0.876632
135.000000	115.000000	5.000000	0.090906	-0.498284	-0.862235
135.000000	115.000000	10.000000	0.684072	-0.256813	0.682710
135.000000	115.000000	15.000000	-0.660127	-0.596885	-0.456027
135.000000	115.000000	20.000000	0.920780	0.389868	-0.012888
135.000000	115.000000	25.000000	0.402504	0.861748	-0.308838
135.000000	115.000000	30.000000	0.953261	0.302004	-0.009306
135.000000	115.000000	35.000000	0.507853	-0.831684	-0.224471
135.000000	115.000000	40.000000	-0.245782	-0.880984	0.404300
135.000000	115.000000	45.000000	-0.087942	-0.782254	0.616722
135.000000	115.000000	50.000000	-0.501114	-0.816701	0.286154
135.000000	115.000000	55.000000	-0.878002	-0.383764	0.286071
135.000000	115.000000	60.000000	-0.319938	-0.176767	-0.930802
135.000000	115.000000	65.000000	-0.643281	0.137887	0.753112
135.000000	115.000000	70.000000	0.453164	0.150537	0.878624
135.000000	115.000000	75.000000	0.728467	-0.666446	0.158698
135.000000	120.000000	0.000000	0.364694	-0.829077	-0.423828
135.000000	120.000000	5.000000	0.253537	-0.741867	-0.620768
135.000000	120.000000	10.000000	0.521692	-0.672608	-0.524820
135.000000	120.000000	15.000000	-0.478762	-0.600435	0.640519
135.000000	120.000000	20.000000	-0.113295	0.644527	0.756141
135.000000	120.000000	25.000000	0.106008	0.763030	-0.637610
135.000000	120.000000	30.000000	-0.885123	0.383464	0.263653
135.000000	120.000000	35.000000	0.408618	-0.485357	-0.772955
135.000000	120.000000	40.000000	0.029204	-0.704548	0.709055
135.000000	120.000000	45.000000	-0.262392	0.539465	0.800080
135.000000	120.000000	50.000000	-0.068695	-0.985361	0.156027
135.000000	120.000000	55.000000	-0.524060	0.813583	0.251883
135.000000	120.000000	60.000000	-0.889912	-0.221057	0.398986
135.000000	120.000000	65.000000	0.665598	0.151164	0.730841
135.000000	120.000000	70.000000	-0.680642	0.623464	0.384733
135.000000	120.000000	75.000000	-0.471937	-0.275825	0.837374
135.000000	125.000000	0.000000	0.935422	0.276789	-0.219941
135.000000	125.000000	5.000000	0.229251	-0.402443	0.886275
135.000000	125.000000	10.000000	-0.018789	-0.553563	-0.832595
135.000000	125.000000	15.000000	0.154704	-0.217038	-0.963826
135.000000	125.000000	20.000000	0.376724	0.737556	0.560438
135.000000	125.000000	25.000000	0.664484	-0.634175	-0.395327
135.000000	125.000000	30.000000	0.822852	0.560512	-0.093494
135.000000	125.000000	35.000000	-0.592806	-0.626602	0.505916
135.000000	125.000000	40.000000	-0.378121	0.709741	-0.594385
135.000000	125.000000	45.000000	-0.546814	0.814716	-0.192957
135.000000	125.000000	50.000000	-0.585738	-0.712658	0.386043
135.000000	125.000000	55.000000	-0.546134	0.367855	0.752609
135.000000	125.000000	60.000000	-0.690651	-0.600291	0.403301
135.000000	125.000000	65.000000	0.162871	-0.986079	0.033478
135.000000	125.000000	70.000000	0.091551	0.584256	0.806389
135.000000	130.000000	0.000000	-0.131433	-0.754279	-0.643264
135.000000	130.000000	5.000000	-0.866204	0.441244	0.234507
135.000000	130.000000	10.000000	-0.431960	0.746856	0.505585
135.000000	130.000000	15.000000	-0.380844	0.514496	0.768279
135.000000	130.000000	20.000000	0.750603	0.561108	-0.348932
135.000000	130.000000	25.000000	-0.532240	0.815288	0.228092
135.000000	130.000000	30.000000	0.911907	-0.072020	0.404029
135.000000	130.000000	35.000000	0.426546	-0.844436	0.324016
135.000000	130.000000	40.000000	-0.307777	0.940518	-0.143869
135.000000	130.000000	45.000000	0.342229	-0.389960	-0.854874
135.000000	130.000000	50.000000	-0.179104	0.739226	-0.649205
135.000000	130.000000	55.000000	-0.931766	0.313916	0.182398
135.000000	130.000000	60.000000	0.442190	-0.184893	-0.877658
135.000000	130.000000	65.000000	0.559449	-0.828569	0.022167
135.000000	130.000000	70.000000	0.305223	-0.950500	0.058211
135.000000	135.000000	0.000000	-0.811849	-0.179156	-0.555701
135.000000	135.000000	5.000000	0.956501	-0.278839	-0.085760
135.000000	135.000000	10.000000	-0.641948	0.185254	-0.744032
135.000000	135.000000	15.000000	-0.265139	0.113943	0.957454
135.000000	135.000000	20.000000	-0.571949	0.281928	0.770318
135.000000	135.000000	25.000000	0.253907	-0.965391	0.059589
135.000000	135.000000	30.000000	0.198189	-0.976886	-0.080098
135.000000	135.000000	35.000000	0.142896	0.966229	0.214433
135.000000	135.000000	40.000000	-0.276966	-0.958541	0.067008
135.000000	135.000000	45.000000	-0.090065	0.910161	-0.404346
135.000000	135.000000	50.000000	0.498815	-0.295544	-0.814762
135.000000	135.000000	55.000000	0.272032	-0.299093	0.914627
135.000000	135.000000	60.000000	-0.522489	-0.831156	-0.190225
135.000000	135.000000	65.000000	-0.388527	0.328367	0.860942
135.000000	140.000000	0.000000	0.586320	-0.796096	0.149868
135.000000	140.000000	5.000000	-0.976257	-0.202652	-0.076519
135.000000	140.000000	10.000000	-0.587287	-0.194514	-0.785658
135.000000	140.000000	15.000000	0.006477	-0.061709	0.998073
135.000000	140.000000	20.000000	0.207889	-0.332243	-0.919998
135.000000	140.000000	25.000000	-0.556879	-0.802927	-0.212588
135.000000	140.000000	30.000000	-0.028240	0.548074	-0.835953
135.000000	140.000000	35.000000	-0.272817	0.953316	-0.129461
135.000000	140.000000	40.000000	0.327159	-0.210241	0.921285
