-1.461861	77.438429	20.028795	0.699554	-0.691875	0.178698
58.625671	-54.321569	3.492538	0.884712	0.460706	-0.070948
-35.505079	-71.372441	6.735280	0.020303	0.998965	-0.040710
2.595007	-79.457757	8.929213	-0.469783	-0.878665	0.085156
-19.329784	2.106683	77.601040	0.994481	-0.104723	0.006330
78.825562	-1.985640	13.512516	0.924717	0.375691	-0.061278
-2.199472	69.948273	38.760824	-0.434764	0.836097	0.334547
-51.770335	28.387467	53.981331	0.142753	0.895188	0.422209
-49.046540	-60.404616	18.593526	-0.892622	-0.272581	0.359063
-71.477460	-35.918436	0.915785	-0.760418	0.316582	0.567046
-74.458814	-25.601667	14.157671	-0.351725	-0.633009	0.689630
-26.140453	-56.135518	50.650571	-0.144547	-0.588047	0.795806
-25.980991	53.114850	53.886926	-0.837345	-0.542734	0.065518
-46.734560	52.706336	37.919956	0.833002	-0.023137	-0.552786
22.147343	76.852329	1.792952	0.968429	0.065231	0.240604
73.534508	27.423703	15.511822	0.375607	0.714551	0.590200
-20.521375	-70.089590	32.654594	0.762578	0.635859	0.118993
-8.777651	-78.850723	10.272116	-0.245529	-0.955908	-0.161109
-73.637078	27.047177	15.685375	-0.674014	-0.284282	0.681828
-63.307447	-19.046715	45.048749	-0.187880	0.811481	-0.553354
-74.801691	25.846782	11.689778	-0.689501	0.701334	0.180886
-14.221277	-77.662517	12.895296	0.512842	-0.610440	-0.603620
-56.125469	-9.128636	56.272549	-0.535244	-0.468286	0.703009
-25.108661	-33.662367	68.091116	0.369849	-0.396258	-0.840352
1.274400	79.459515	9.195725	0.538708	0.831117	-0.137981
-27.039956	-46.465940	59.243203	-0.546036	-0.831954	0.098472
46.724585	63.658414	12.822615	0.279842	-0.956305	-0.084675
35.425941	-46.692175	54.450377	-0.056043	-0.675834	0.734920
-22.926050	-65.874745	39.177980	0.204316	0.247768	0.947030
13.271189	12.244859	77.935480	-0.985422	-0.042405	-0.164757
28.322941	61.858079	42.087873	0.965274	0.068983	-0.251968
-79.973272	1.148745	1.719364	-0.610155	0.776908	-0.155322
-75.495851	-26.462820	0.309326	0.542063	-0.017959	-0.840146
-43.577119	-60.456244	29.087407	-0.685598	0.537031	0.491481
3.374332	-38.700162	69.935051	0.210949	-0.719621	0.661548
-27.281763	61.544555	43.220054	0.904019	0.289724	0.314341
10.340211	-39.810296	68.616473	-0.884462	-0.176828	-0.431808
20.565256	-12.925018	76.223449	0.830193	-0.077249	0.552098
79.775213	-5.099813	3.147592	0.965743	0.167911	0.197854
-2.683456	69.359512	39.775083	0.290890	-0.129357	0.947971
71.139354	13.966046	33.825165	-0.332096	-0.705975	0.625550
64.612967	20.679004	42.397445	-0.368286	-0.911190	0.184657
-7.336743	-36.681923	70.714982	0.078835	-0.376321	-0.923129
20.078998	37.781811	67.597105	0.450610	0.387419	0.804274
-44.971898	-64.503314	14.725858	0.359392	-0.884449	-0.297634
-33.166083	25.536688	68.175424	-0.622820	-0.027638	0.781877
-19.624164	28.490691	72.133021	0.784898	-0.394757	-0.477600
-52.918643	-59.830477	4.464450	0.672001	-0.109709	-0.732379
47.798325	50.472137	39.596509	-0.571584	-0.767305	0.290750
-60.862391	-0.176324	51.920499	-0.375254	-0.846360	-0.377968
14.567518	36.784228	69.532065	-0.165442	0.186450	-0.968435
78.206263	-12.749318	11.010688	-0.134126	0.593964	-0.793232
-30.750151	-68.946700	26.472265	0.499185	0.649637	-0.573398
-40.337949	-62.152167	30.165510	0.073569	-0.918552	0.388394
64.431120	27.015256	38.971871	-0.107110	0.583358	0.805122
-70.402623	23.197924	30.088653	-0.475655	-0.823912	0.308093
-30.022787	-63.595163	38.135121	0.208415	0.648693	-0.731957
-57.899725	-7.256623	54.726258	-0.064553	-0.162535	-0.984589
-5.956487	-53.965994	58.755355	-0.724248	0.686748	-0.061982
79.168928	-8.507495	7.739728	0.018034	0.223057	-0.974639
50.637022	-61.920882	1.302461	0.524165	-0.818916	-0.233726
7.212511	-18.612236	77.469764	-0.415437	-0.367044	-0.832281
-25.787542	66.290249	36.614280	-0.963920	-0.264756	-0.027599
-27.916424	-51.275429	54.694640	0.830153	0.363176	0.423023
53.791493	48.978023	33.281054	0.787503	-0.430476	-0.441055
27.252878	-42.959370	61.739559	-0.768352	0.378184	-0.516346
55.536590	42.510240	38.840271	0.481480	-0.010440	0.876395
71.296240	36.247459	1.722768	-0.024616	-0.046057	0.998635
-3.619626	-78.081684	17.033759	0.358450	0.924201	0.131778
52.325722	-43.514489	42.053633	-0.139235	-0.037669	0.989543
56.713963	-56.193898	5.076642	0.617047	-0.737746	0.273830
63.416588	-44.977074	18.852034	-0.464767	0.294150	0.835145
-14.786036	45.424782	64.171351	0.386409	0.320419	0.864882
62.087037	40.674140	29.846509	0.566717	0.629528	-0.531532
8.056690	32.409148	72.696196	-0.110809	-0.063584	0.991806
-69.155132	40.110508	2.952089	-0.079011	0.690542	0.718964
41.861702	-40.602160	54.763697	-0.908358	-0.408584	-0.089139
61.484595	-50.366387	9.103388	0.845739	-0.134830	0.516282
68.635992	-10.387360	39.764348	0.229511	0.277394	0.932940
18.602746	-44.289769	63.971511	0.960602	0.238134	0.143305
-78.382787	-15.948167	1.339669	-0.775332	-0.490673	0.397618
-19.200250	9.120192	77.124396	0.198109	-0.486031	-0.851191
36.726431	54.530690	45.580402	0.564033	-0.825714	0.007993
58.275942	-34.943534	42.223975	0.534164	-0.698788	-0.475777
-77.283211	-9.811834	18.194317	0.421629	-0.669628	0.611414
-4.190747	30.379106	73.888751	0.257747	-0.618834	0.742031
47.447572	-45.456812	45.633389	-0.397889	-0.228299	0.888574
-33.463598	-70.125995	19.040284	-0.666522	-0.465557	-0.582242
-40.872983	-61.219330	31.330382	-0.717486	0.666478	-0.202536
8.925076	78.735598	11.002207	-0.821276	-0.520569	-0.233482
79.615326	-7.727667	1.297290	0.747011	0.351479	0.564302
14.918254	78.592155	0.847835	0.118397	-0.874720	-0.469943
69.125654	14.134760	37.707460	0.654634	-0.536505	0.532556
-3.130112	-63.743180	48.239086	-0.043213	0.536748	0.842635
11.883959	77.317441	16.756634	-0.352947	-0.724134	0.592502
72.278529	-7.885681	33.371100	-0.187851	-0.866578	-0.462337
15.942152	-76.265728	18.149008	0.915462	0.293258	-0.275554
-31.826710	11.518015	72.487212	0.322221	0.578043	-0.749693
68.963883	34.156221	21.848008	-0.938993	0.342937	0.026185
-30.886456	-26.337947	68.937213	-0.014918	0.983474	-0.180432
